-0.432834 2.366572 -2.326075 
-0.415512 2.365074 -2.311257 
-0.331826 2.368034 -2.329813 
-0.187539 2.369953 -2.315213 
-0.104534 2.366764 -2.332163 
0.038121 2.366717 -2.318417 
0.111789 2.366294 -2.311682 
0.136930 2.360954 -2.326647 
0.150504 2.367579 -2.311002 
0.197034 2.361797 -2.336269 
0.219701 2.357514 -2.322962 
0.241672 2.356493 -2.317057 
0.275524 2.363675 -2.316312 
0.338649 2.367594 -2.317776 
0.388015 2.359102 -2.325491 
0.473552 2.361075 -2.326213 
0.508912 2.368441 -2.327735 
0.528640 2.364934 -2.315235 
0.671918 2.364594 -2.319738 
0.705510 2.361623 -2.321494 
-0.677970 2.387582 -2.319146 
-0.645495 2.399210 -2.323286 
-0.611226 2.398369 -2.324010 
-0.549895 2.386410 -2.312735 
-0.514211 2.393196 -2.329055 
-0.433072 2.386189 -2.329306 
-0.408836 2.388761 -2.321740 
-0.373310 2.396244 -2.322161 
-0.345653 2.387777 -2.323528 
-0.310230 2.387155 -2.320874 
-0.273142 2.385373 -2.335668 
-0.260939 2.384981 -2.325995 
-0.223538 2.384414 -2.322702 
-0.187850 2.399540 -2.317891 
-0.173166 2.399055 -2.325645 
-0.143833 2.390080 -2.323514 
-0.110515 2.391862 -2.314156 
-0.076826 2.376632 -2.332846 
-0.044383 2.397255 -2.322239 
-0.015245 2.395355 -2.319295 
0.006549 2.390425 -2.328946 
0.053130 2.392944 -2.321836 
0.069535 2.390040 -2.323264 
0.105645 2.391672 -2.322021 
0.129891 2.387156 -2.319520 
0.166031 2.391944 -2.318598 
0.197135 2.381395 -2.329642 
0.229952 2.378794 -2.321163 
0.259864 2.393680 -2.324303 
0.278256 2.379619 -2.327248 
0.314244 2.386591 -2.320409 
0.342990 2.391198 -2.323567 
0.370687 2.392104 -2.323865 
0.405599 2.385902 -2.314260 
0.442163 2.390577 -2.327831 
0.461987 2.389428 -2.317499 
0.495566 2.389698 -2.322368 
0.528312 2.380553 -2.328541 
0.553497 2.384966 -2.328699 
0.589289 2.378615 -2.314102 
0.613290 2.392384 -2.325582 
0.637023 2.389153 -2.319330 
0.685329 2.388738 -2.326808 
0.707075 2.392047 -2.335615 
0.732320 2.388345 -2.317186 
-0.674725 2.419736 -2.335926 
-0.648911 2.420929 -2.331823 
-0.612800 2.415560 -2.330040 
-0.590071 2.420545 -2.319656 
-0.557882 2.414964 -2.326558 
-0.517346 2.414759 -2.328129 
-0.493177 2.412994 -2.322474 
-0.459723 2.422051 -2.327307 
-0.437722 2.409948 -2.320169 
-0.396465 2.415671 -2.319584 
-0.375317 2.419950 -2.321345 
-0.342577 2.414433 -2.330936 
-0.314275 2.426523 -2.331239 
-0.282040 2.418909 -2.332117 
-0.261824 2.418024 -2.328357 
-0.225426 2.416449 -2.326834 
-0.189351 2.414103 -2.321634 
-0.170322 2.418386 -2.321035 
-0.126648 2.415118 -2.322216 
-0.104420 2.410866 -2.328756 
-0.075771 2.415507 -2.334607 
-0.054351 2.408724 -2.319649 
-0.017741 2.417719 -2.320115 
0.012132 2.412746 -2.323513 
0.047341 2.407162 -2.322004 
0.078614 2.416483 -2.322555 
0.100938 2.412272 -2.322447 
0.131661 2.405805 -2.315934 
0.166743 2.411108 -2.330264 
0.195406 2.413928 -2.328516 
0.227121 2.420417 -2.328871 
0.257977 2.414551 -2.323516 
0.288053 2.409390 -2.332679 
0.315108 2.418356 -2.328301 
0.349022 2.410438 -2.325153 
0.374897 2.409737 -2.327331 
0.413725 2.411372 -2.334016 
0.437958 2.408648 -2.326193 
0.471346 2.408527 -2.332724 
0.491868 2.417598 -2.321572 
0.525942 2.405259 -2.314516 
0.560531 2.419729 -2.327131 
0.584000 2.414065 -2.324868 
0.617003 2.418141 -2.321468 
0.642678 2.414555 -2.320951 
0.668133 2.400761 -2.332451 
0.740574 2.407354 -2.337143 
-0.676487 2.437280 -2.323542 
-0.646263 2.436308 -2.330304 
-0.616992 2.443239 -2.318950 
-0.577016 2.434619 -2.321020 
-0.547166 2.439627 -2.327939 
-0.525161 2.443351 -2.323291 
-0.490012 2.442755 -2.323645 
-0.462680 2.444625 -2.322496 
-0.437372 2.441094 -2.326365 
-0.403176 2.446718 -2.323047 
-0.372752 2.447865 -2.331984 
-0.338564 2.443699 -2.327131 
-0.311878 2.439712 -2.334388 
-0.290250 2.443397 -2.330598 
-0.256626 2.443086 -2.323584 
-0.226747 2.439978 -2.326607 
-0.208016 2.434134 -2.332440 
-0.164017 2.432996 -2.330332 
-0.140430 2.446188 -2.332312 
-0.100645 2.444262 -2.318650 
-0.077352 2.447084 -2.313678 
-0.043043 2.448208 -2.332386 
-0.014257 2.451011 -2.325252 
0.003135 2.458645 -2.324272 
0.047011 2.447242 -2.325971 
0.075887 2.448227 -2.330439 
0.107606 2.434664 -2.328839 
0.132883 2.445442 -2.323375 
0.171945 2.438102 -2.337256 
0.200447 2.444440 -2.332255 
0.229949 2.442182 -2.333681 
0.255257 2.435933 -2.328647 
0.295963 2.433875 -2.338540 
0.309670 2.444605 -2.324905 
0.368846 2.438099 -2.311675 
0.434777 2.445953 -2.330229 
0.454995 2.444678 -2.325444 
0.500209 2.458406 -2.314592 
0.518811 2.448990 -2.318732 
0.584033 2.443361 -2.332710 
0.610608 2.438489 -2.335407 
-0.590297 2.483817 -2.332287 
-0.550888 2.482611 -2.329110 
-0.528257 2.473593 -2.325911 
-0.497167 2.470470 -2.335673 
-0.373649 2.472788 -2.331616 
-0.355497 2.481647 -2.336734 
-0.325369 2.469243 -2.332479 
-0.289273 2.466830 -2.321364 
-0.264150 2.465480 -2.324502 
-0.188503 2.481637 -2.331184 
-0.163155 2.477441 -2.323436 
-0.139194 2.476621 -2.335857 
-0.096158 2.469142 -2.317744 
0.034640 2.463964 -2.330912 
0.068974 2.466572 -2.326988 
0.257622 2.469089 -2.326121 
0.310401 2.473433 -2.330387 
0.446036 2.462503 -2.330288 
-0.608878 2.494163 -2.332674 
-0.583043 2.496993 -2.330429 
-0.139058 2.491267 -2.326671 
0.282861 2.500379 -2.321558 
0.768025 2.309962 -2.282517 
0.145612 2.333047 -2.290657 
0.199830 2.327405 -2.285038 
0.227075 2.329090 -2.287075 
0.411686 2.323574 -2.280974 
0.665613 2.332885 -2.294266 
0.746612 2.338799 -2.308012 
0.772432 2.319923 -2.287681 
-0.497435 2.359919 -2.287756 
-0.311439 2.359987 -2.299155 
-0.294436 2.356876 -2.305835 
-0.258615 2.353709 -2.280859 
-0.194022 2.356328 -2.307929 
-0.003666 2.359938 -2.288927 
0.016091 2.362851 -2.289022 
0.046537 2.359287 -2.283871 
0.114173 2.358376 -2.286126 
0.136520 2.362145 -2.295185 
0.173794 2.362817 -2.285436 
0.202840 2.364799 -2.297694 
0.224853 2.346213 -2.288700 
0.259575 2.361559 -2.306199 
0.275857 2.367400 -2.291350 
0.313330 2.367618 -2.293874 
0.335572 2.363189 -2.290896 
0.371359 2.366880 -2.289567 
0.414729 2.364074 -2.293027 
0.429032 2.360901 -2.293293 
0.500794 2.359698 -2.309025 
0.520821 2.355648 -2.301119 
0.628864 2.364892 -2.298048 
0.651398 2.357743 -2.290291 
0.679124 2.354018 -2.293011 
0.697026 2.360310 -2.293969 
0.734476 2.361760 -2.290243 
0.758341 2.354351 -2.295171 
-0.680364 2.391641 -2.302073 
-0.624393 2.399775 -2.291474 
-0.583291 2.396919 -2.297079 
-0.548376 2.392131 -2.285400 
-0.523859 2.380572 -2.291814 
-0.496861 2.392482 -2.288177 
-0.459746 2.392631 -2.292331 
-0.440078 2.393543 -2.299780 
-0.409947 2.398080 -2.291317 
-0.377492 2.394670 -2.293356 
-0.349007 2.388402 -2.295142 
-0.317317 2.388171 -2.296497 
-0.278165 2.391929 -2.305962 
-0.255520 2.388661 -2.296679 
-0.221814 2.378709 -2.290347 
-0.194344 2.395935 -2.299861 
-0.161996 2.391929 -2.294730 
-0.130157 2.381581 -2.291628 
-0.097800 2.386266 -2.294972 
-0.068590 2.390566 -2.295329 
-0.046954 2.388234 -2.299403 
-0.019838 2.390555 -2.298182 
0.008012 2.388741 -2.290947 
0.049168 2.383206 -2.306079 
0.080254 2.389615 -2.300043 
0.110407 2.385372 -2.288672 
0.130207 2.377845 -2.288582 
0.167702 2.387782 -2.302769 
0.186767 2.394790 -2.299262 
0.225237 2.379429 -2.293943 
0.261010 2.382136 -2.289726 
0.281598 2.389802 -2.294926 
0.320544 2.382687 -2.290129 
0.349501 2.383142 -2.300825 
0.376359 2.378381 -2.292264 
0.404433 2.384964 -2.295621 
0.438545 2.377948 -2.294527 
0.468649 2.382149 -2.296393 
0.498098 2.390483 -2.298813 
0.526068 2.388097 -2.293573 
0.555571 2.383162 -2.297012 
0.584585 2.387483 -2.296869 
0.619650 2.387023 -2.288836 
0.646029 2.390578 -2.285747 
0.669948 2.391145 -2.285852 
0.712606 2.386678 -2.292358 
0.736779 2.373212 -2.288043 
0.754989 2.385334 -2.299401 
-0.673097 2.411348 -2.291608 
-0.645583 2.410528 -2.296147 
-0.621846 2.418248 -2.294809 
-0.587444 2.413052 -2.288879 
-0.560274 2.411250 -2.290283 
-0.526452 2.412041 -2.296374 
-0.490200 2.407880 -2.288414 
-0.470464 2.411505 -2.296230 
-0.430780 2.422314 -2.290106 
-0.406376 2.413764 -2.298694 
-0.372223 2.410843 -2.288451 
-0.348947 2.411241 -2.293594 
-0.321422 2.408578 -2.295092 
-0.280077 2.422527 -2.296467 
-0.259029 2.404371 -2.298902 
-0.225380 2.417108 -2.287914 
-0.198118 2.409904 -2.296078 
-0.157526 2.405822 -2.298539 
-0.140449 2.418445 -2.303294 
-0.102137 2.415903 -2.291661 
-0.078760 2.410191 -2.302615 
-0.050723 2.409158 -2.293512 
-0.008515 2.423306 -2.300134 
0.020321 2.405988 -2.293616 
0.051290 2.408307 -2.296973 
0.076527 2.415469 -2.296486 
0.103784 2.407347 -2.294766 
0.142384 2.419445 -2.293538 
0.174466 2.410820 -2.300064 
0.194548 2.409085 -2.300206 
0.235190 2.414121 -2.303752 
0.260962 2.412440 -2.303304 
0.271182 2.413783 -2.301387 
0.307805 2.410204 -2.298523 
0.347306 2.407677 -2.300197 
0.371735 2.413140 -2.289340 
0.408051 2.400853 -2.292217 
0.431474 2.408614 -2.289379 
0.462371 2.411307 -2.293622 
0.502516 2.416610 -2.303857 
0.522536 2.409627 -2.296225 
0.549848 2.409067 -2.295002 
0.587973 2.403562 -2.302563 
0.609330 2.420136 -2.295915 
0.658159 2.400085 -2.291711 
0.675845 2.412871 -2.292620 
0.710484 2.416442 -2.300859 
0.735624 2.411072 -2.297478 
0.751473 2.401079 -2.308537 
-0.681858 2.437203 -2.300502 
-0.645403 2.436862 -2.298611 
-0.619215 2.441499 -2.299752 
-0.587718 2.436280 -2.297940 
-0.550086 2.442528 -2.300102 
-0.519563 2.443695 -2.295012 
-0.503489 2.435944 -2.293703 
-0.471849 2.431947 -2.293983 
-0.433283 2.433492 -2.297574 
-0.403084 2.441843 -2.298578 
-0.375638 2.444570 -2.295379 
-0.330941 2.438777 -2.288633 
-0.320626 2.455207 -2.300861 
-0.291603 2.451189 -2.296962 
-0.249753 2.441457 -2.304189 
-0.230144 2.446447 -2.304415 
-0.179958 2.450559 -2.297856 
-0.104878 2.444984 -2.297704 
-0.076527 2.440486 -2.296022 
-0.052510 2.435273 -2.293929 
-0.015680 2.438067 -2.304046 
0.017235 2.442271 -2.292772 
0.049725 2.448202 -2.298307 
0.130754 2.436244 -2.295169 
0.156528 2.434245 -2.309342 
0.201750 2.431878 -2.284001 
0.256404 2.441919 -2.289545 
0.282969 2.445488 -2.303169 
0.304637 2.438937 -2.294444 
0.380782 2.435527 -2.306003 
0.452549 2.438005 -2.299376 
0.501315 2.440759 -2.300533 
0.554025 2.431285 -2.287710 
0.573538 2.436853 -2.303962 
0.709448 2.436604 -2.290445 
0.723205 2.441266 -2.295331 
-0.397025 2.476348 -2.306224 
-0.385763 2.470985 -2.297087 
0.214066 2.471315 -2.288049 
0.286454 2.471938 -2.308692 
0.052879 2.338351 -2.262092 
0.068824 2.332946 -2.255515 
0.116872 2.328119 -2.253481 
0.128705 2.334520 -2.277256 
0.213991 2.319537 -2.279775 
0.247171 2.324200 -2.250965 
0.316787 2.325996 -2.253398 
0.343049 2.335682 -2.260674 
0.413272 2.330117 -2.258729 
0.642714 2.329622 -2.259458 
0.668761 2.330639 -2.262640 
0.766542 2.322174 -2.270263 
0.784665 2.331408 -2.263568 
-0.588309 2.360585 -2.264598 
-0.547056 2.368213 -2.259888 
-0.522719 2.363159 -2.254040 
-0.482170 2.347979 -2.261775 
-0.469719 2.351270 -2.265846 
-0.363928 2.367166 -2.252330 
-0.307522 2.368939 -2.254013 
-0.252276 2.363798 -2.273290 
-0.212572 2.366035 -2.255403 
-0.167854 2.364618 -2.264245 
-0.107525 2.366281 -2.261630 
-0.075558 2.361936 -2.266239 
-0.043109 2.368995 -2.263833 
-0.016836 2.356351 -2.271968 
0.009496 2.358713 -2.261431 
0.041336 2.355827 -2.265989 
0.083783 2.360544 -2.253704 
0.110295 2.358062 -2.253397 
0.130960 2.360073 -2.272140 
0.163321 2.362882 -2.271177 
0.195221 2.357716 -2.256938 
0.229490 2.353004 -2.255059 
0.260265 2.356971 -2.266359 
0.277409 2.355254 -2.268946 
0.317149 2.364666 -2.266454 
0.336838 2.362824 -2.268829 
0.372093 2.357934 -2.261299 
0.405660 2.360087 -2.252331 
0.431224 2.354183 -2.261893 
0.459453 2.368693 -2.270109 
0.498278 2.363247 -2.265496 
0.519331 2.359841 -2.258208 
0.545296 2.367734 -2.275168 
0.580222 2.366967 -2.262587 
0.614794 2.361585 -2.261114 
0.637633 2.349240 -2.268015 
0.669960 2.357897 -2.265405 
0.738230 2.360838 -2.267641 
0.759746 2.359441 -2.265944 
-0.641577 2.387327 -2.260737 
-0.615750 2.389677 -2.267723 
-0.583197 2.392302 -2.270934 
-0.546824 2.390209 -2.267711 
-0.528358 2.396552 -2.273404 
-0.494127 2.383718 -2.260128 
-0.461177 2.382110 -2.264977 
-0.427921 2.381870 -2.264531 
-0.410579 2.390029 -2.256678 
-0.373074 2.390158 -2.258222 
-0.343104 2.394695 -2.257582 
-0.306818 2.390364 -2.268264 
-0.288302 2.389919 -2.258322 
-0.258048 2.392218 -2.262196 
-0.224752 2.382482 -2.263474 
-0.195475 2.382481 -2.258990 
-0.173921 2.381328 -2.273473 
-0.131868 2.388576 -2.255192 
-0.101585 2.389196 -2.264678 
-0.071878 2.382685 -2.264758 
-0.053806 2.383691 -2.261017 
-0.013878 2.381397 -2.268486 
0.014611 2.382681 -2.268087 
0.036273 2.392554 -2.269975 
0.077975 2.381176 -2.264322 
0.108672 2.389941 -2.268807 
0.132940 2.384160 -2.269609 
0.171995 2.386613 -2.266194 
0.189491 2.390731 -2.267540 
0.228448 2.380645 -2.256083 
0.264762 2.383797 -2.261088 
0.280062 2.387815 -2.270097 
0.313885 2.388910 -2.274130 
0.343153 2.392867 -2.260216 
0.369107 2.386190 -2.260928 
0.412110 2.380645 -2.267916 
0.433597 2.381588 -2.268248 
0.463232 2.382152 -2.261373 
0.488718 2.388783 -2.268089 
0.523204 2.386012 -2.260253 
0.558653 2.378157 -2.268885 
0.584568 2.383655 -2.256325 
0.619995 2.381288 -2.258422 
0.640189 2.384743 -2.264953 
0.674049 2.383369 -2.268438 
0.699659 2.385991 -2.270753 
0.732763 2.387169 -2.267346 
0.762775 2.379793 -2.268579 
0.793426 2.372517 -2.256504 
-0.674633 2.411368 -2.263541 
-0.636339 2.406290 -2.264866 
-0.618751 2.419158 -2.264100 
-0.587313 2.405723 -2.263901 
-0.552595 2.406395 -2.271103 
-0.527613 2.420635 -2.262654 
-0.488249 2.419147 -2.272030 
-0.472863 2.420853 -2.259460 
-0.438843 2.412666 -2.267216 
-0.396828 2.415571 -2.262325 
-0.378788 2.418837 -2.261118 
-0.341169 2.419172 -2.267643 
-0.322660 2.416696 -2.268884 
-0.286820 2.417469 -2.254124 
-0.252761 2.406199 -2.276542 
-0.221728 2.421705 -2.257127 
-0.202464 2.402442 -2.275363 
-0.137947 2.410988 -2.262571 
-0.098769 2.422469 -2.265793 
-0.071876 2.409653 -2.275582 
-0.038543 2.409927 -2.267971 
-0.011571 2.413340 -2.268169 
0.016776 2.409070 -2.266793 
0.045614 2.412066 -2.264863 
0.067670 2.428229 -2.263034 
0.107885 2.412609 -2.261034 
0.133313 2.414152 -2.260048 
0.168713 2.411084 -2.272367 
0.188429 2.410035 -2.270118 
0.255903 2.411302 -2.266710 
0.287202 2.414610 -2.263960 
0.302670 2.409271 -2.259012 
0.371608 2.413472 -2.263253 
0.394800 2.415078 -2.268809 
0.434554 2.409005 -2.270339 
0.468164 2.408237 -2.262533 
0.583645 2.400048 -2.271434 
0.604956 2.405404 -2.265840 
0.678353 2.405798 -2.274412 
0.707966 2.415812 -2.269283 
0.733425 2.412086 -2.263340 
0.765855 2.414920 -2.256440 
-0.643125 2.439747 -2.279823 
-0.622180 2.436728 -2.263072 
-0.561625 2.434090 -2.271441 
-0.516373 2.435469 -2.274694 
-0.494705 2.437786 -2.261841 
-0.472383 2.436470 -2.278357 
-0.373886 2.449888 -2.265032 
-0.318664 2.446780 -2.273472 
-0.293348 2.434103 -2.270328 
-0.250283 2.441770 -2.271600 
-0.234646 2.432580 -2.258533 
-0.196828 2.449541 -2.266187 
-0.171659 2.438121 -2.261456 
-0.121086 2.448379 -2.273556 
-0.101748 2.438838 -2.259630 
-0.083971 2.437366 -2.278271 
0.054409 2.432850 -2.268872 
0.068443 2.431699 -2.266578 
0.144783 2.430305 -2.277769 
0.194740 2.443975 -2.269922 
0.222419 2.433142 -2.275772 
0.283505 2.449678 -2.260567 
0.372622 2.439626 -2.264398 
-0.360459 2.467003 -2.253276 
0.252747 2.306794 -2.231129 
0.311451 2.297710 -2.224462 
0.387578 2.307022 -2.220197 
-0.583187 2.335243 -2.226011 
-0.437528 2.339664 -2.221548 
-0.159518 2.335873 -2.229934 
-0.081057 2.316636 -2.222688 
-0.016152 2.337908 -2.221262 
0.056378 2.327031 -2.233697 
0.076240 2.331865 -2.238404 
0.111330 2.334243 -2.244692 
0.207857 2.338129 -2.243350 
0.229085 2.338355 -2.227800 
0.262135 2.322239 -2.235907 
0.282169 2.335591 -2.233407 
0.306331 2.327601 -2.235707 
0.344236 2.325456 -2.245232 
0.374547 2.324253 -2.230409 
0.414911 2.327517 -2.220398 
0.471905 2.327492 -2.228922 
0.521413 2.329680 -2.233812 
0.655259 2.333743 -2.227291 
0.678302 2.331737 -2.223601 
0.774091 2.328441 -2.223462 
0.793170 2.333369 -2.247980 
-0.649840 2.366466 -2.226562 
-0.621443 2.359480 -2.227356 
-0.581977 2.346008 -2.243711 
-0.556399 2.355236 -2.234841 
-0.528376 2.360936 -2.224052 
-0.498961 2.364250 -2.243078 
-0.457077 2.356234 -2.234179 
-0.438539 2.358484 -2.225979 
-0.403227 2.364985 -2.232397 
-0.370348 2.362373 -2.227665 
-0.356997 2.359421 -2.233446 
-0.316719 2.365811 -2.232278 
-0.286358 2.364183 -2.225269 
-0.249806 2.359473 -2.249729 
-0.219240 2.360789 -2.237309 
-0.192530 2.363953 -2.225348 
-0.164270 2.352563 -2.236835 
-0.134603 2.360231 -2.242310 
-0.093380 2.340604 -2.228734 
-0.078623 2.364887 -2.230325 
-0.044155 2.356653 -2.226752 
-0.012110 2.363510 -2.238199 
0.004629 2.362409 -2.228229 
0.049356 2.360178 -2.233710 
0.079347 2.362595 -2.235504 
0.104370 2.355698 -2.229065 
0.141347 2.354882 -2.229252 
0.170687 2.349044 -2.227285 
0.202387 2.360004 -2.234942 
0.216981 2.354677 -2.231425 
0.255015 2.361058 -2.233339 
0.278320 2.362676 -2.239989 
0.306869 2.352882 -2.231730 
0.344967 2.349756 -2.224978 
0.366797 2.345837 -2.233232 
0.413791 2.361285 -2.232512 
0.432291 2.352220 -2.230038 
0.467134 2.351737 -2.230110 
0.500353 2.358430 -2.231560 
0.524459 2.360900 -2.233524 
0.557240 2.362660 -2.236892 
0.573673 2.359386 -2.227715 
0.605560 2.346633 -2.225647 
0.641226 2.360485 -2.230874 
0.675780 2.353400 -2.234592 
0.702243 2.355063 -2.227566 
0.734224 2.356164 -2.236117 
0.755706 2.360281 -2.231226 
0.798409 2.352879 -2.237237 
-0.640644 2.381401 -2.237089 
-0.614133 2.381260 -2.231260 
-0.588526 2.390906 -2.228685 
-0.561684 2.391728 -2.226343 
-0.521820 2.392896 -2.228801 
-0.493794 2.380605 -2.226186 
-0.463347 2.383794 -2.232449 
-0.439486 2.384909 -2.229997 
-0.398011 2.389820 -2.230470 
-0.380494 2.382283 -2.231052 
-0.352056 2.386536 -2.236123 
-0.313909 2.385094 -2.236002 
-0.280543 2.383953 -2.237537 
-0.248452 2.382653 -2.239254 
-0.219187 2.384083 -2.239169 
-0.193374 2.378619 -2.226460 
-0.162542 2.384407 -2.233292 
-0.130879 2.387821 -2.229628 
-0.099565 2.387919 -2.232783 
-0.078284 2.383497 -2.245357 
-0.046543 2.378369 -2.239523 
-0.022393 2.385277 -2.226628 
0.017845 2.387601 -2.240301 
0.040410 2.388949 -2.228234 
0.072367 2.375210 -2.236361 
0.095547 2.393335 -2.236344 
0.146722 2.391259 -2.244503 
0.167269 2.388269 -2.230896 
0.187750 2.377302 -2.235542 
0.229592 2.379787 -2.237838 
0.249065 2.377928 -2.232858 
0.283263 2.390716 -2.235893 
0.305531 2.392104 -2.234306 
0.350229 2.376029 -2.243971 
0.377416 2.385196 -2.235750 
0.398822 2.374386 -2.232701 
0.441729 2.382329 -2.236783 
0.459510 2.391015 -2.237861 
0.498710 2.381289 -2.227910 
0.524995 2.379223 -2.239399 
0.549803 2.378292 -2.235347 
0.581846 2.371662 -2.233123 
0.645640 2.375416 -2.245592 
0.671623 2.386451 -2.237348 
0.712919 2.377402 -2.236228 
0.733869 2.375662 -2.234903 
0.775663 2.395683 -2.232840 
-0.673725 2.417264 -2.239553 
-0.646664 2.418255 -2.235225 
-0.608774 2.415283 -2.237143 
-0.594135 2.412313 -2.245399 
-0.550443 2.406782 -2.231737 
-0.525703 2.419037 -2.237569 
-0.491740 2.415600 -2.242077 
-0.456021 2.409809 -2.234291 
-0.431417 2.410865 -2.240830 
-0.397620 2.410738 -2.237261 
-0.371818 2.410863 -2.240567 
-0.338259 2.412588 -2.234374 
-0.300211 2.404516 -2.242934 
-0.282468 2.412486 -2.227757 
-0.254655 2.413213 -2.239473 
-0.237131 2.411587 -2.232994 
-0.207668 2.407303 -2.231375 
-0.166556 2.414300 -2.237181 
-0.137520 2.411640 -2.239764 
-0.101714 2.413898 -2.234910 
-0.078592 2.407022 -2.232576 
-0.043024 2.413645 -2.236873 
-0.018610 2.408052 -2.239300 
0.017521 2.419975 -2.229019 
0.073229 2.418623 -2.231756 
0.094526 2.405853 -2.221670 
0.123682 2.404338 -2.230647 
0.167660 2.404474 -2.242785 
0.191500 2.402479 -2.234082 
0.256074 2.414813 -2.233418 
0.284038 2.411057 -2.242924 
0.338569 2.410430 -2.240089 
0.372116 2.413828 -2.238941 
0.654829 2.409468 -2.226023 
0.743797 2.410378 -2.239712 
0.760198 2.412619 -2.244650 
-0.671411 2.437524 -2.245553 
-0.586257 2.431200 -2.237642 
-0.551815 2.441679 -2.247296 
-0.413680 2.434161 -2.236837 
-0.347125 2.444560 -2.238818 
-0.301383 2.430078 -2.238338 
-0.195730 2.438898 -2.240435 
-0.126358 2.443121 -2.245049 
-0.046775 2.432532 -2.246292 
-0.028763 2.430804 -2.246512 
0.011861 2.437489 -2.231561 
0.054198 2.435271 -2.247466 
0.274936 2.433605 -2.232596 
0.659478 2.435718 -2.238210 
0.670012 2.432440 -2.226861 
-0.138578 2.304872 -2.194593 
0.598876 2.303581 -2.198594 
0.603456 2.309131 -2.197531 
0.784776 2.305690 -2.199303 
-0.622772 2.338544 -2.196589 
-0.593863 2.336319 -2.213617 
-0.521631 2.330709 -2.201734 
-0.361880 2.332842 -2.196739 
-0.346812 2.315428 -2.190537 
-0.155514 2.319807 -2.217529 
-0.136101 2.320447 -2.191959 
-0.106506 2.329337 -2.197166 
-0.077732 2.323826 -2.207114 
-0.056601 2.331519 -2.211068 
0.054431 2.337064 -2.198601 
0.061014 2.313207 -2.218904 
0.129084 2.334219 -2.198189 
0.171360 2.337813 -2.204293 
0.197273 2.334439 -2.199573 
0.279429 2.331373 -2.217076 
0.327563 2.336426 -2.205749 
0.375643 2.328814 -2.216107 
0.391079 2.339945 -2.200278 
0.464947 2.327430 -2.198550 
0.527459 2.329570 -2.202616 
0.557597 2.332748 -2.208197 
0.589078 2.328143 -2.200311 
0.618026 2.335964 -2.203527 
0.640160 2.333332 -2.202040 
0.673135 2.326101 -2.210241 
0.709901 2.327408 -2.194323 
0.737618 2.323447 -2.203382 
0.768593 2.319926 -2.215533 
0.802366 2.326845 -2.202280 
-0.637940 2.359274 -2.211496 
-0.606125 2.359091 -2.206420 
-0.578870 2.363941 -2.201554 
-0.563734 2.363546 -2.202852 
-0.528687 2.360271 -2.201879 
-0.494217 2.364124 -2.201991 
-0.460938 2.357775 -2.202597 
-0.435828 2.359804 -2.201945 
-0.410808 2.363971 -2.203237 
-0.376639 2.350747 -2.198877 
-0.339283 2.365514 -2.206864 
-0.306058 2.364875 -2.208997 
-0.283448 2.362349 -2.204346 
-0.244831 2.366395 -2.201767 
-0.226951 2.362986 -2.209018 
-0.193064 2.363328 -2.202328 
-0.171915 2.362614 -2.206635 
-0.130551 2.356220 -2.195999 
-0.106623 2.351216 -2.201214 
-0.072091 2.357174 -2.208378 
-0.042935 2.349476 -2.213071 
-0.011584 2.359718 -2.206251 
0.011759 2.359087 -2.198203 
0.049245 2.355703 -2.204935 
0.081416 2.355142 -2.205353 
0.111893 2.358372 -2.197875 
0.176003 2.357131 -2.210138 
0.200132 2.350952 -2.206950 
0.220675 2.358365 -2.203365 
0.268347 2.362024 -2.194225 
0.283924 2.353267 -2.207480 
0.318099 2.350800 -2.213063 
0.346434 2.347090 -2.199745 
0.374005 2.360732 -2.215295 
0.409987 2.353656 -2.201206 
0.437567 2.344993 -2.215817 
0.458804 2.357220 -2.208180 
0.491946 2.354119 -2.211470 
0.516691 2.363320 -2.207536 
0.554041 2.353580 -2.212110 
0.585063 2.356807 -2.206350 
0.617081 2.355901 -2.205183 
0.649315 2.358720 -2.205606 
0.673424 2.354775 -2.200265 
0.703358 2.353842 -2.195944 
0.738620 2.363676 -2.205748 
0.760349 2.360780 -2.203956 
0.793998 2.355698 -2.207316 
0.819433 2.347483 -2.209332 
-0.654561 2.384900 -2.194774 
-0.607457 2.382148 -2.199669 
-0.586583 2.381223 -2.201298 
-0.557880 2.383753 -2.206797 
-0.532134 2.388691 -2.199986 
-0.495262 2.389318 -2.210040 
-0.468427 2.383031 -2.200460 
-0.434340 2.389054 -2.206636 
-0.400428 2.385262 -2.204504 
-0.366626 2.378812 -2.206482 
-0.345396 2.392796 -2.202424 
-0.313464 2.383701 -2.195877 
-0.277699 2.379934 -2.198987 
-0.253014 2.385603 -2.208828 
-0.231028 2.380018 -2.210066 
-0.191208 2.390269 -2.201299 
-0.170233 2.377980 -2.200750 
-0.141591 2.389766 -2.200586 
-0.105877 2.388897 -2.200315 
-0.073867 2.382239 -2.206345 
-0.048082 2.381690 -2.204309 
-0.016873 2.382019 -2.207481 
0.007878 2.385146 -2.200937 
0.051271 2.385387 -2.209918 
0.085290 2.381142 -2.205001 
0.106395 2.383220 -2.208051 
0.143522 2.382449 -2.201385 
0.161199 2.385519 -2.201467 
0.200418 2.379864 -2.200696 
0.223474 2.388696 -2.206550 
0.261954 2.385388 -2.206352 
0.274366 2.377274 -2.199487 
0.342532 2.386508 -2.202056 
0.374924 2.381959 -2.209346 
0.400579 2.376279 -2.201752 
0.493521 2.373940 -2.198895 
0.656691 2.398435 -2.217393 
0.681885 2.378773 -2.218100 
0.691359 2.381409 -2.201744 
0.722041 2.387819 -2.212789 
0.752901 2.387567 -2.210006 
-0.649108 2.406024 -2.214860 
-0.607589 2.404934 -2.206709 
-0.590842 2.404070 -2.200338 
-0.544448 2.413120 -2.219562 
-0.521265 2.406717 -2.217435 
-0.497363 2.413446 -2.219897 
-0.457677 2.401618 -2.213207 
-0.439306 2.401527 -2.206676 
-0.398021 2.410535 -2.200714 
-0.382571 2.406284 -2.214266 
-0.355447 2.424417 -2.209734 
-0.303666 2.413331 -2.211395 
-0.260531 2.402821 -2.212532 
-0.173268 2.402829 -2.209710 
-0.095514 2.406235 -2.216640 
-0.065037 2.400835 -2.214834 
-0.037781 2.409619 -2.206271 
-0.011115 2.418256 -2.200737 
0.009880 2.403809 -2.207451 
0.053330 2.415166 -2.198934 
0.070933 2.412925 -2.202045 
0.097678 2.401277 -2.207249 
0.135055 2.408312 -2.209384 
0.708502 2.403744 -2.211034 
-0.015893 2.435334 -2.207111 
0.073717 2.432590 -2.209478 
-0.337422 2.308096 -2.174179 
0.128805 2.304367 -2.161188 
0.550711 2.295658 -2.173972 
0.573178 2.309505 -2.184595 
0.620685 2.304905 -2.172067 
0.649367 2.296018 -2.172531 
0.706168 2.307991 -2.170668 
0.798215 2.300213 -2.179058 
0.817817 2.303564 -2.169271 
-0.645062 2.334133 -2.174165 
-0.613451 2.338310 -2.169422 
-0.578347 2.334378 -2.171329 
-0.558868 2.321442 -2.168623 
-0.511405 2.328041 -2.165370 
-0.497138 2.333650 -2.174731 
-0.454064 2.339008 -2.188256 
-0.432964 2.335210 -2.168636 
-0.409293 2.333465 -2.161171 
-0.376907 2.329953 -2.172338 
-0.344263 2.325873 -2.165360 
-0.250173 2.328830 -2.164695 
-0.225437 2.330431 -2.172802 
-0.198746 2.327865 -2.176103 
-0.163507 2.330051 -2.171039 
-0.102164 2.337151 -2.169789 
-0.076547 2.330535 -2.169201 
-0.044271 2.322629 -2.166220 
-0.004213 2.318008 -2.172846 
0.020361 2.332533 -2.175789 
0.053808 2.317076 -2.170600 
0.074786 2.334403 -2.162005 
0.104513 2.323782 -2.173178 
0.131989 2.314205 -2.178145 
0.223131 2.331459 -2.166523 
0.267814 2.329972 -2.175414 
0.283961 2.325590 -2.176790 
0.306538 2.326218 -2.177849 
0.340703 2.324255 -2.183878 
0.403672 2.327027 -2.175999 
0.433078 2.330837 -2.171702 
0.454549 2.332784 -2.173391 
0.538455 2.329081 -2.180768 
0.560185 2.332942 -2.179302 
0.587085 2.327605 -2.173932 
0.615583 2.329617 -2.172410 
0.642265 2.321700 -2.173442 
0.669198 2.328306 -2.183036 
0.702540 2.332642 -2.166805 
0.728394 2.330362 -2.177745 
0.760224 2.336628 -2.172437 
0.791697 2.315817 -2.174161 
0.822838 2.324039 -2.174283 
-0.654227 2.363331 -2.173366 
-0.619188 2.359893 -2.180453 
-0.585554 2.362139 -2.168061 
-0.560409 2.359757 -2.181544 
-0.516225 2.362910 -2.169782 
-0.499152 2.357096 -2.177284 
-0.473043 2.361479 -2.172543 
-0.433324 2.361447 -2.169595 
-0.409271 2.353634 -2.178797 
-0.376990 2.355247 -2.171828 
-0.344248 2.349488 -2.182232 
-0.318885 2.358085 -2.174713 
-0.281778 2.361318 -2.171247 
-0.263548 2.357872 -2.167670 
-0.225838 2.357589 -2.175817 
-0.190305 2.357043 -2.168985 
-0.167837 2.357499 -2.172947 
-0.143015 2.353919 -2.175693 
-0.102384 2.358519 -2.166031 
-0.078892 2.359559 -2.166903 
-0.042949 2.357179 -2.166400 
-0.014729 2.363120 -2.179607 
0.018380 2.351794 -2.173388 
0.053106 2.343200 -2.166983 
0.062212 2.368308 -2.173248 
0.099606 2.354204 -2.172155 
0.140835 2.361543 -2.181439 
0.157691 2.354556 -2.171825 
0.189889 2.345279 -2.163549 
0.223416 2.361228 -2.165212 
0.253315 2.363934 -2.169941 
0.283378 2.352093 -2.175529 
0.313565 2.362823 -2.176676 
0.346649 2.350499 -2.171694 
0.362241 2.356710 -2.177212 
0.399930 2.353768 -2.177431 
0.436347 2.347631 -2.179285 
0.502036 2.349395 -2.181733 
0.535718 2.348053 -2.170497 
0.542457 2.346767 -2.183849 
0.581436 2.345454 -2.175723 
0.605841 2.346381 -2.172723 
0.655935 2.350106 -2.188310 
0.678918 2.340081 -2.173413 
0.704082 2.352646 -2.171309 
0.738646 2.346910 -2.179533 
0.759947 2.347802 -2.170265 
0.794588 2.349386 -2.180128 
0.815082 2.356122 -2.175193 
-0.648967 2.373805 -2.174150 
-0.620419 2.384785 -2.173442 
-0.590741 2.377617 -2.173200 
-0.543209 2.372554 -2.170689 
-0.519008 2.384946 -2.184080 
-0.496236 2.376663 -2.176096 
-0.465375 2.371857 -2.173940 
-0.432931 2.383405 -2.170129 
-0.406283 2.382019 -2.171879 
-0.375572 2.378210 -2.178521 
-0.343372 2.374969 -2.175343 
-0.315896 2.373160 -2.168149 
-0.278616 2.377419 -2.184507 
-0.255807 2.377305 -2.177170 
-0.221447 2.386092 -2.176134 
-0.187627 2.374189 -2.170156 
-0.166646 2.374625 -2.180669 
-0.132227 2.379317 -2.170835 
-0.099249 2.371630 -2.172782 
-0.081415 2.375815 -2.173547 
-0.039617 2.379915 -2.185012 
-0.011387 2.384497 -2.179218 
0.014158 2.384153 -2.177530 
0.040834 2.379831 -2.180515 
0.075860 2.382111 -2.176754 
0.093423 2.389072 -2.174769 
0.138866 2.385569 -2.172208 
0.164013 2.385886 -2.181565 
0.200571 2.372705 -2.181778 
0.222383 2.389217 -2.186318 
0.263210 2.382497 -2.182216 
0.285959 2.387815 -2.174859 
0.321429 2.378513 -2.173232 
0.336522 2.378765 -2.171317 
0.440073 2.371100 -2.161835 
0.490027 2.389986 -2.162860 
-0.521706 2.403997 -2.173349 
-0.502879 2.403625 -2.171308 
-0.247571 2.401861 -2.188491 
-0.222914 2.407604 -2.174338 
-0.156350 2.400056 -2.171161 
-0.149326 2.403746 -2.188332 
-0.009023 2.405849 -2.176087 
0.010402 2.407744 -2.181015 
0.056496 2.413453 -2.182281 
0.064971 2.414642 -2.176817 
0.142167 2.409026 -2.169943 
0.284794 2.400661 -2.183605 
0.548137 2.277781 -2.152996 
0.796068 2.269249 -2.149038 
0.810311 2.272933 -2.147678 
-0.482150 2.294796 -2.136764 
-0.469878 2.302451 -2.138943 
-0.401518 2.298310 -2.140042 
-0.389773 2.289987 -2.138969 
-0.193787 2.300343 -2.156142 
-0.025891 2.309221 -2.158353 
0.051207 2.305747 -2.157223 
0.132775 2.303293 -2.152058 
0.337146 2.308124 -2.137497 
0.444001 2.299395 -2.155499 
0.456601 2.304873 -2.141456 
0.536655 2.305722 -2.155247 
0.552048 2.291768 -2.136045 
0.588379 2.294005 -2.143576 
0.610496 2.297595 -2.142099 
0.642159 2.303331 -2.143671 
0.683785 2.309931 -2.155787 
0.702542 2.293324 -2.135043 
0.736375 2.301409 -2.137628 
0.764690 2.302962 -2.136143 
0.796758 2.299862 -2.134917 
0.820851 2.293162 -2.141670 
0.857013 2.289192 -2.136595 
-0.641169 2.332754 -2.134987 
-0.615650 2.331599 -2.150967 
-0.549600 2.332587 -2.142840 
-0.519312 2.329566 -2.146609 
-0.496784 2.325099 -2.145865 
-0.469614 2.329863 -2.139365 
-0.437615 2.325460 -2.146551 
-0.403724 2.332401 -2.149855 
-0.376149 2.327929 -2.151304 
-0.349286 2.329946 -2.145655 
-0.279011 2.334238 -2.148142 
-0.255950 2.332029 -2.141268 
-0.234442 2.336137 -2.139719 
-0.205907 2.334502 -2.142932 
-0.159513 2.328866 -2.134864 
-0.134906 2.323207 -2.140480 
-0.105213 2.333976 -2.147479 
-0.076571 2.329641 -2.143064 
-0.035503 2.323707 -2.145299 
-0.018152 2.316544 -2.157822 
0.016905 2.329826 -2.143953 
0.039233 2.327828 -2.142241 
0.080136 2.327011 -2.142549 
0.098403 2.330315 -2.144932 
0.165353 2.329503 -2.146269 
0.194803 2.324135 -2.135485 
0.227960 2.331376 -2.140185 
0.262513 2.312874 -2.153681 
0.282882 2.330978 -2.140832 
0.320778 2.322763 -2.142346 
0.346665 2.313943 -2.132255 
0.365452 2.330796 -2.146157 
0.401553 2.330064 -2.153820 
0.442769 2.318912 -2.144188 
0.469850 2.319863 -2.140120 
0.496305 2.330753 -2.141846 
0.519833 2.328105 -2.145206 
0.556284 2.331233 -2.142083 
0.577904 2.329037 -2.140913 
0.655302 2.322114 -2.141071 
0.672124 2.322633 -2.146183 
0.707270 2.323556 -2.146895 
0.733088 2.329013 -2.152607 
0.757916 2.320789 -2.143495 
0.787865 2.335760 -2.150658 
0.820635 2.330765 -2.149235 
0.847652 2.322904 -2.152528 
-0.644573 2.350833 -2.137064 
-0.620024 2.349063 -2.134122 
-0.582405 2.355330 -2.147991 
-0.550348 2.350833 -2.145953 
-0.531936 2.355210 -2.140196 
-0.497837 2.350683 -2.143758 
-0.469095 2.358340 -2.147794 
-0.438658 2.350445 -2.141330 
-0.397533 2.347716 -2.151262 
-0.374990 2.353641 -2.139491 
-0.346588 2.358374 -2.142694 
-0.318131 2.356121 -2.145626 
-0.287157 2.359829 -2.144898 
-0.267806 2.343722 -2.144489 
-0.215685 2.346849 -2.152632 
-0.195864 2.352568 -2.143156 
-0.164524 2.347965 -2.154678 
-0.132592 2.350503 -2.151145 
-0.110283 2.361457 -2.143752 
-0.075255 2.352490 -2.144835 
-0.045045 2.351312 -2.136001 
-0.010319 2.356623 -2.146079 
0.019427 2.352349 -2.150023 
0.044846 2.353863 -2.147382 
0.066756 2.354134 -2.144411 
0.105730 2.349737 -2.145272 
0.141730 2.352294 -2.137125 
0.161717 2.359841 -2.149551 
0.198343 2.352419 -2.140895 
0.232120 2.346666 -2.140062 
0.256044 2.350597 -2.149451 
0.293927 2.356709 -2.141762 
0.308613 2.352135 -2.148086 
0.351244 2.353657 -2.146218 
0.375134 2.349400 -2.141898 
0.399162 2.342893 -2.143201 
0.427099 2.360855 -2.149324 
0.454422 2.350729 -2.146468 
0.502856 2.355252 -2.146731 
0.524590 2.358577 -2.140880 
0.561360 2.348288 -2.137911 
0.577373 2.346174 -2.143897 
0.614536 2.345130 -2.146113 
0.655206 2.340927 -2.140058 
0.718564 2.362371 -2.134517 
0.799508 2.354289 -2.146376 
0.838349 2.348425 -2.155483 
-0.640793 2.379344 -2.156736 
-0.606341 2.370724 -2.158051 
-0.585404 2.375365 -2.141287 
-0.560754 2.372210 -2.136672 
-0.524799 2.384801 -2.148479 
-0.490261 2.387074 -2.157245 
-0.467508 2.381387 -2.140725 
-0.439874 2.375038 -2.149723 
-0.409294 2.377734 -2.144044 
-0.387160 2.383169 -2.148234 
-0.355815 2.374209 -2.143289 
-0.312838 2.374294 -2.148267 
-0.275726 2.380073 -2.143867 
-0.251766 2.382655 -2.138531 
-0.223562 2.372627 -2.140946 
-0.205555 2.373644 -2.147543 
-0.166335 2.388386 -2.146965 
-0.136844 2.380699 -2.146757 
-0.104351 2.375352 -2.158203 
-0.078844 2.373792 -2.150840 
-0.016265 2.374759 -2.144297 
0.074355 2.373302 -2.151742 
0.139701 2.381614 -2.140549 
0.155987 2.390404 -2.153804 
0.330938 2.372217 -2.159112 
0.371063 2.376364 -2.146533 
0.402792 2.374081 -2.142125 
0.437862 2.380753 -2.154514 
0.464020 2.377936 -2.152155 
0.488794 2.389906 -2.146304 
-0.227640 2.401893 -2.147212 
-0.135522 2.400718 -2.135693 
0.193295 2.400771 -2.139608 
-0.530257 2.272315 -2.109461 
-0.465635 2.276726 -2.122610 
0.138921 2.264992 -2.113856 
0.318350 2.279879 -2.104585 
0.460948 2.274226 -2.103441 
0.533893 2.274628 -2.117317 
0.550142 2.278762 -2.121399 
0.584893 2.268683 -2.115939 
0.736303 2.277178 -2.101293 
0.809807 2.274928 -2.109357 
0.826591 2.274703 -2.107041 
0.849427 2.278872 -2.127784 
0.871170 2.271825 -2.113857 
-0.612050 2.298688 -2.100797 
-0.583509 2.309804 -2.101248 
-0.549041 2.300698 -2.114962 
-0.526395 2.300291 -2.109680 
-0.494628 2.302715 -2.111878 
-0.461179 2.303487 -2.110924 
-0.400503 2.299827 -2.105545 
-0.384513 2.309786 -2.112492 
-0.324446 2.308300 -2.101516 
-0.240092 2.307527 -2.106603 
-0.159467 2.302258 -2.117618 
-0.120225 2.301273 -2.107511 
-0.115112 2.300300 -2.120402 
-0.047830 2.304126 -2.116370 
-0.012241 2.307612 -2.107262 
0.013778 2.302536 -2.110565 
0.047153 2.306608 -2.111498 
0.081905 2.307485 -2.112267 
0.108274 2.299422 -2.112874 
0.140975 2.305048 -2.111085 
0.163929 2.299589 -2.114468 
0.228029 2.298997 -2.118000 
0.257502 2.297547 -2.107876 
0.272426 2.298565 -2.117116 
0.322101 2.306039 -2.111921 
0.334888 2.300496 -2.113585 
0.385186 2.301466 -2.108632 
0.393008 2.291043 -2.103324 
0.442381 2.293468 -2.115381 
0.467162 2.298066 -2.112743 
0.493808 2.302791 -2.119070 
0.518331 2.290546 -2.106962 
0.557311 2.297188 -2.110202 
0.587551 2.291401 -2.121684 
0.611770 2.298906 -2.115891 
0.641044 2.298857 -2.114291 
0.670167 2.302489 -2.109538 
0.711155 2.298801 -2.112935 
0.743607 2.297280 -2.126465 
0.757285 2.302640 -2.114989 
0.805775 2.299534 -2.114594 
0.823149 2.296818 -2.115038 
0.855796 2.293928 -2.112822 
-0.643100 2.335962 -2.119177 
-0.613566 2.333682 -2.112247 
-0.591219 2.327868 -2.110929 
-0.553937 2.332857 -2.121492 
-0.535509 2.330199 -2.118257 
-0.491569 2.324666 -2.116798 
-0.455931 2.334837 -2.112462 
-0.437821 2.318995 -2.104855 
-0.401444 2.321854 -2.107310 
-0.376909 2.326383 -2.113422 
-0.339623 2.318246 -2.107311 
-0.300831 2.311946 -2.101451 
-0.286546 2.336371 -2.121401 
-0.261224 2.324657 -2.120243 
-0.223667 2.329077 -2.119514 
-0.198986 2.327391 -2.116434 
-0.170025 2.325591 -2.110036 
-0.132073 2.330432 -2.106498 
-0.102531 2.323678 -2.108636 
-0.074368 2.334891 -2.112046 
-0.045732 2.321649 -2.110474 
-0.019652 2.332759 -2.112727 
0.007257 2.330186 -2.111465 
0.042594 2.327009 -2.115314 
0.079304 2.328780 -2.120586 
0.096780 2.320213 -2.120140 
0.136536 2.326740 -2.111337 
0.165636 2.323480 -2.108379 
0.188416 2.322453 -2.110458 
0.224289 2.322714 -2.109262 
0.251610 2.333916 -2.120555 
0.288827 2.326692 -2.108075 
0.314037 2.318634 -2.117759 
0.342099 2.318196 -2.107615 
0.375429 2.328853 -2.120814 
0.405174 2.326888 -2.111395 
0.436240 2.327247 -2.113284 
0.457266 2.322779 -2.115213 
0.493501 2.321771 -2.113377 
0.533978 2.311257 -2.125296 
0.556727 2.326193 -2.112594 
0.588811 2.323475 -2.122344 
0.611596 2.321426 -2.115460 
0.647311 2.324369 -2.120568 
0.673585 2.321647 -2.112388 
0.712506 2.312788 -2.124284 
0.741175 2.311404 -2.118239 
0.765796 2.321805 -2.118445 
0.791250 2.326200 -2.111276 
0.863801 2.319510 -2.119609 
-0.637710 2.359507 -2.116831 
-0.609203 2.353369 -2.117871 
-0.578421 2.357630 -2.121815 
-0.558156 2.356396 -2.109508 
-0.530175 2.355742 -2.119286 
-0.497924 2.351458 -2.124134 
-0.464536 2.348239 -2.123026 
-0.437778 2.359389 -2.120418 
-0.412346 2.360149 -2.115394 
-0.381870 2.355315 -2.120913 
-0.348221 2.351417 -2.112768 
-0.309015 2.348802 -2.114082 
-0.291217 2.346097 -2.112208 
-0.253207 2.354458 -2.110709 
-0.226036 2.351907 -2.112250 
-0.202839 2.356471 -2.106559 
-0.169206 2.344177 -2.121495 
-0.138789 2.352710 -2.109448 
-0.084781 2.359668 -2.117638 
-0.042728 2.355136 -2.117882 
-0.013727 2.351761 -2.125911 
0.015432 2.359150 -2.121779 
0.039867 2.349755 -2.115792 
0.089262 2.357372 -2.115810 
0.100241 2.351863 -2.114806 
0.140444 2.360922 -2.122015 
0.168498 2.356692 -2.118497 
0.205149 2.343066 -2.112314 
0.226513 2.342902 -2.119906 
0.267155 2.348471 -2.112914 
0.270916 2.341539 -2.128279 
0.308067 2.342796 -2.118485 
0.353593 2.347645 -2.120518 
0.381364 2.353257 -2.113373 
0.417537 2.351630 -2.124637 
0.430262 2.344888 -2.109699 
0.499302 2.357031 -2.113539 
0.531364 2.350905 -2.110488 
0.542575 2.345592 -2.116929 
0.579690 2.343587 -2.129765 
0.607748 2.344648 -2.115407 
0.653293 2.347953 -2.108469 
0.669833 2.352179 -2.119496 
0.707980 2.343352 -2.111849 
0.729094 2.359823 -2.126592 
0.802865 2.352085 -2.121605 
-0.516371 2.387426 -2.119876 
-0.473321 2.376397 -2.113379 
-0.436372 2.372764 -2.101518 
-0.246605 2.376395 -2.125015 
-0.220870 2.385768 -2.121614 
-0.200689 2.378073 -2.115813 
-0.140454 2.377790 -2.109990 
-0.103271 2.388900 -2.115023 
-0.086791 2.388982 -2.117084 
-0.059736 2.374119 -2.105676 
0.193943 2.380997 -2.125346 
-0.125399 2.406418 -2.108420 
0.867977 2.220247 -2.087114 
0.881818 2.225481 -2.089566 
-0.537595 2.257314 -2.096026 
-0.463925 2.267214 -2.087233 
-0.028335 2.274946 -2.077050 
0.109350 2.264329 -2.089919 
0.121664 2.272005 -2.098612 
0.239887 2.277132 -2.076857 
0.242069 2.271133 -2.079763 
0.378932 2.273806 -2.098265 
0.393246 2.270226 -2.084651 
0.475838 2.268015 -2.084646 
0.487587 2.267673 -2.086499 
0.514133 2.278802 -2.096588 
0.618473 2.269912 -2.076111 
0.669635 2.272996 -2.087428 
0.711489 2.262947 -2.082949 
0.734262 2.267100 -2.081522 
0.791051 2.261687 -2.081272 
0.816142 2.272206 -2.085110 
0.853977 2.276996 -2.079061 
-0.625697 2.301404 -2.085458 
-0.587970 2.304238 -2.087735 
-0.548832 2.303752 -2.076670 
-0.520004 2.301422 -2.090569 
-0.491048 2.297860 -2.085221 
-0.472281 2.300249 -2.082087 
-0.420428 2.304874 -2.094620 
-0.415466 2.303348 -2.085497 
-0.377406 2.300159 -2.076937 
-0.346236 2.305143 -2.083767 
-0.315242 2.297248 -2.080656 
-0.286202 2.304349 -2.073440 
-0.225028 2.305998 -2.080755 
-0.192939 2.297126 -2.082162 
-0.159933 2.303699 -2.083332 
-0.121698 2.307735 -2.080172 
-0.104644 2.305235 -2.085704 
-0.075587 2.305097 -2.080312 
-0.047847 2.290437 -2.081104 
-0.011202 2.298239 -2.089967 
0.009879 2.303967 -2.083700 
0.054112 2.294339 -2.078302 
0.070521 2.298569 -2.083658 
0.102390 2.301589 -2.079906 
0.138750 2.301705 -2.086174 
0.155955 2.304676 -2.075430 
0.198311 2.294348 -2.076995 
0.223734 2.294333 -2.082300 
0.248882 2.294081 -2.079948 
0.287765 2.300169 -2.076970 
0.317330 2.295485 -2.086445 
0.347913 2.300920 -2.078887 
0.380303 2.299608 -2.090150 
0.400945 2.300003 -2.088833 
0.438742 2.300297 -2.086698 
0.467374 2.300427 -2.071835 
0.491008 2.292193 -2.072227 
0.530486 2.302547 -2.080490 
0.553943 2.284696 -2.092361 
0.579410 2.296066 -2.085802 
0.614734 2.287883 -2.084189 
0.641450 2.298430 -2.090942 
0.682876 2.288166 -2.094675 
0.694784 2.287163 -2.072801 
0.740235 2.295101 -2.081478 
0.764434 2.303785 -2.080751 
0.795854 2.288098 -2.091512 
0.826782 2.291171 -2.090287 
0.849790 2.293017 -2.090611 
-0.610547 2.322148 -2.081928 
-0.592324 2.328723 -2.089603 
-0.558617 2.333588 -2.079983 
-0.522762 2.332084 -2.081322 
-0.498900 2.327285 -2.084270 
-0.471542 2.327139 -2.087807 
-0.437520 2.322709 -2.088594 
-0.398170 2.322273 -2.084242 
-0.381048 2.320532 -2.083957 
-0.340313 2.327645 -2.092303 
-0.314749 2.334288 -2.077130 
-0.286095 2.325866 -2.084923 
-0.248486 2.325381 -2.081300 
-0.224762 2.328863 -2.083584 
-0.194655 2.322715 -2.080498 
-0.167446 2.323960 -2.080940 
-0.140841 2.332308 -2.091586 
-0.097092 2.329101 -2.093802 
-0.075608 2.329392 -2.086619 
-0.045441 2.326009 -2.085340 
-0.022851 2.323577 -2.090999 
0.028227 2.318575 -2.094340 
0.042414 2.320934 -2.082815 
0.073743 2.313843 -2.089905 
0.091208 2.311317 -2.086653 
0.133558 2.320393 -2.090941 
0.164342 2.323244 -2.086316 
0.190972 2.328549 -2.086666 
0.223941 2.327986 -2.086137 
0.257689 2.328067 -2.083886 
0.286216 2.328667 -2.086378 
0.308284 2.325723 -2.081365 
0.354177 2.325867 -2.093962 
0.368338 2.315947 -2.093082 
0.397299 2.319866 -2.083064 
0.433932 2.325951 -2.088004 
0.470521 2.329597 -2.078671 
0.497073 2.336745 -2.088871 
0.533713 2.319539 -2.079899 
0.553331 2.324993 -2.088917 
0.588519 2.330542 -2.076054 
0.610886 2.321512 -2.089655 
0.639319 2.313288 -2.083707 
0.670467 2.328813 -2.090954 
0.695607 2.324080 -2.091163 
0.738470 2.318966 -2.073648 
0.769283 2.312986 -2.082945 
0.790655 2.313405 -2.080162 
0.833167 2.320998 -2.088838 
0.852109 2.323994 -2.098824 
-0.640493 2.355211 -2.089629 
-0.617051 2.349589 -2.078292 
-0.582594 2.355380 -2.090378 
-0.559351 2.343417 -2.090806 
-0.521646 2.341977 -2.073275 
-0.503650 2.346557 -2.088924 
-0.466766 2.353748 -2.086094 
-0.437290 2.357116 -2.082091 
-0.402928 2.350199 -2.093500 
-0.374343 2.354124 -2.080796 
-0.343297 2.357517 -2.088572 
-0.318940 2.349033 -2.081117 
-0.299482 2.341569 -2.099072 
-0.249102 2.340346 -2.083042 
-0.223496 2.354590 -2.091600 
-0.208087 2.341746 -2.098143 
-0.167966 2.348123 -2.089887 
-0.130903 2.348796 -2.089926 
-0.109945 2.360495 -2.085269 
-0.070024 2.351152 -2.092700 
-0.048933 2.358927 -2.095759 
0.027599 2.343898 -2.080500 
0.045689 2.359584 -2.083123 
0.103194 2.355904 -2.089776 
0.133313 2.347496 -2.094910 
0.191536 2.354102 -2.082174 
0.294359 2.350785 -2.086522 
0.306394 2.341932 -2.088976 
0.472007 2.343594 -2.090003 
0.521408 2.345591 -2.088693 
0.595219 2.342077 -2.083892 
0.603861 2.342574 -2.089390 
0.656995 2.349033 -2.098619 
0.672396 2.344980 -2.080279 
-0.623922 2.372627 -2.098480 
-0.598960 2.371589 -2.091677 
-0.518701 2.370853 -2.099460 
-0.344155 2.370922 -2.082232 
-0.186323 2.372373 -2.081156 
-0.134530 2.370656 -2.079869 
-0.119475 2.371585 -2.095647 
0.069091 2.384603 -2.092134 
0.101270 2.373517 -2.089849 
-0.027488 2.242707 -2.043835 
0.381287 2.238161 -2.045967 
0.393104 2.235203 -2.053127 
0.847151 2.247011 -2.049059 
-0.520222 2.267269 -2.052373 
-0.491978 2.270720 -2.050590 
-0.454420 2.276025 -2.047980 
-0.240867 2.279386 -2.057204 
-0.192417 2.274302 -2.063860 
-0.158922 2.272898 -2.047642 
-0.063529 2.277466 -2.048255 
-0.034948 2.268728 -2.057493 
-0.008593 2.261613 -2.057163 
0.011683 2.269150 -2.055234 
0.046348 2.279139 -2.069430 
0.102470 2.266938 -2.060815 
0.125689 2.278619 -2.057109 
0.194816 2.275997 -2.047878 
0.225645 2.275111 -2.058997 
0.262928 2.260653 -2.054503 
0.322683 2.275710 -2.048861 
0.348790 2.275578 -2.046744 
0.371376 2.273205 -2.051555 
0.410459 2.251254 -2.057768 
0.426634 2.276953 -2.052184 
0.498342 2.269892 -2.045283 
0.524916 2.276250 -2.054084 
0.557474 2.274162 -2.061359 
0.618598 2.271724 -2.059639 
0.677758 2.274805 -2.046964 
0.733354 2.276984 -2.047690 
0.785131 2.277416 -2.046011 
0.819441 2.271573 -2.063553 
0.854753 2.258580 -2.046345 
0.886301 2.267935 -2.051719 
-0.613356 2.299911 -2.047077 
-0.588290 2.296245 -2.055914 
-0.560669 2.302383 -2.049160 
-0.527516 2.292959 -2.058316 
-0.492606 2.289539 -2.053703 
-0.472095 2.305991 -2.060001 
-0.439449 2.305975 -2.048676 
-0.403249 2.295390 -2.047745 
-0.379963 2.304451 -2.053752 
-0.347867 2.291382 -2.063097 
-0.283210 2.292460 -2.047162 
-0.241500 2.291448 -2.045843 
-0.225751 2.299357 -2.057261 
-0.196667 2.303729 -2.058123 
-0.159386 2.291180 -2.046135 
-0.141754 2.302825 -2.060587 
-0.092880 2.307504 -2.059703 
-0.075746 2.299481 -2.049401 
-0.052928 2.293144 -2.065642 
-0.006146 2.301791 -2.054819 
0.029162 2.301114 -2.046374 
0.047979 2.305647 -2.060669 
0.076077 2.292569 -2.049907 
0.138334 2.298352 -2.052125 
0.163227 2.297651 -2.056968 
0.196691 2.297940 -2.056581 
0.230258 2.300030 -2.047427 
0.261893 2.299491 -2.046523 
0.286237 2.301634 -2.055902 
0.327083 2.299904 -2.049022 
0.349206 2.295030 -2.056723 
0.371917 2.298825 -2.060262 
0.399335 2.294130 -2.052769 
0.431120 2.294154 -2.057387 
0.462941 2.304137 -2.050644 
0.498300 2.288875 -2.057683 
0.521850 2.290204 -2.052205 
0.563388 2.306060 -2.055649 
0.585619 2.298880 -2.052078 
0.607836 2.303256 -2.046143 
0.642317 2.297119 -2.050146 
0.674713 2.298359 -2.047094 
0.710274 2.293139 -2.056182 
0.737187 2.287649 -2.061011 
0.760448 2.300777 -2.063299 
0.789846 2.295282 -2.062059 
0.817513 2.302636 -2.048341 
0.846625 2.294780 -2.050043 
0.880328 2.294152 -2.053819 
-0.621343 2.315118 -2.045505 
-0.576437 2.327142 -2.057235 
-0.553244 2.327663 -2.055444 
-0.532152 2.327323 -2.054011 
-0.501657 2.323595 -2.057586 
-0.457660 2.330046 -2.068501 
-0.431398 2.322689 -2.050163 
-0.406927 2.329214 -2.061551 
-0.371200 2.321669 -2.060278 
-0.342644 2.324473 -2.056160 
-0.320438 2.323994 -2.058356 
-0.273516 2.322023 -2.057899 
-0.248316 2.325151 -2.049844 
-0.226869 2.323961 -2.054813 
-0.188033 2.317738 -2.046139 
-0.172464 2.321719 -2.056500 
-0.128168 2.328753 -2.055743 
-0.101942 2.329832 -2.049224 
-0.072505 2.327320 -2.051497 
-0.043721 2.326996 -2.048434 
-0.009036 2.325243 -2.067920 
0.006624 2.325211 -2.050629 
0.054027 2.318904 -2.043224 
0.081350 2.327542 -2.055651 
0.114350 2.322552 -2.066434 
0.136351 2.323148 -2.051432 
0.167892 2.317889 -2.049022 
0.195636 2.313495 -2.068465 
0.231784 2.319265 -2.056555 
0.255258 2.328367 -2.048992 
0.288063 2.325181 -2.045007 
0.308921 2.332629 -2.056758 
0.353491 2.316352 -2.061331 
0.379042 2.322690 -2.046278 
0.421594 2.310360 -2.067962 
0.470343 2.315651 -2.055340 
0.500791 2.316463 -2.051368 
0.517341 2.324711 -2.060694 
0.559716 2.317582 -2.056426 
0.589391 2.324929 -2.061085 
0.608746 2.330460 -2.061690 
0.649732 2.321913 -2.054545 
0.672395 2.325199 -2.060825 
0.764238 2.317006 -2.060132 
0.824788 2.321172 -2.049944 
0.845868 2.329712 -2.044416 
0.870038 2.312210 -2.057709 
-0.615778 2.343549 -2.054440 
-0.585439 2.353541 -2.058509 
-0.569608 2.361805 -2.063691 
-0.527966 2.350344 -2.053166 
-0.480045 2.353176 -2.066915 
-0.453413 2.341914 -2.066652 
-0.446643 2.342306 -2.063246 
-0.334029 2.357733 -2.069809 
-0.268922 2.365411 -2.046676 
-0.181959 2.340059 -2.051859 
-0.160392 2.343701 -2.057935 
-0.123622 2.348288 -2.063224 
-0.103793 2.344541 -2.058881 
-0.062454 2.342680 -2.061227 
-0.037461 2.349152 -2.053738 
0.022713 2.353455 -2.064347 
0.044300 2.349182 -2.055968 
0.103149 2.353130 -2.062747 
0.175601 2.343722 -2.043240 
0.198679 2.365214 -2.067048 
0.211656 2.359952 -2.069264 
0.304227 2.349495 -2.040368 
0.602768 2.345166 -2.065601 
-0.558015 2.373709 -2.052847 
-0.484194 2.249967 -2.039893 
-0.039377 2.233641 -2.014400 
0.178674 2.249870 -2.013241 
0.225159 2.248184 -2.029996 
0.255705 2.249736 -2.034306 
0.271221 2.227936 -2.029005 
0.375366 2.242446 -2.022351 
0.486952 2.244577 -2.010507 
